# .PCD v0.7 - Point Cloud Data file format
VERSION 0.7
FIELDS x y z
SIZE 4 4 4
TYPE F F F
COUNT 1 1 1
WIDTH 457
HEIGHT 1
VIEWPOINT 0 0 0 1 0 0 0
POINTS 457
DATA ascii
-0.18860316 -0.054487713 1.0465064
-0.18659669 -0.055486389 1.048098
-0.15439454 -0.05153244 1.04299
-0.087521084 -0.059718706 1.0575356
-0.045463905 -0.053567 1.0493493
-0.037857153 -0.053408302 1.049332
-0.029147342 -0.052633516 1.0484024
-0.028063856 -0.05256293 1.0483264
0.0045256242 -0.052996092 1.0499597
0.011004731 -0.053177811 1.050431
0.019703154 -0.053762816 1.051587
0.021877572 -0.053733192 1.0516062
0.061155848 -0.053307436 1.0521208
0.085652694 -0.056657217 1.0579876
0.1124666 -0.05922503 1.0627238
0.13472393 -0.055557571 1.0577595
0.15418068 -0.054208465 1.0562685
0.21307409 -0.055682831 1.0602809
0.21543995 -0.056030042 1.0608839
0.2370213 -0.054977722 1.0599113
0.23942211 -0.054997034 1.0600122
0.24928454 -0.055190347 1.0606019
0.26526979 -0.056110792 1.0624892
0.30622542 -0.055276491 1.0624268
0.31503308 -0.055156745 1.062505
0.32080305 -0.055128701 1.0626335
0.32190275 -0.05511377 1.0626433
0.32300249 -0.055098809 1.0626531
0.33248383 -0.038830981 1.0379801
0.33198521 -0.037767924 1.0363345
0.3314974 -0.036751039 1.0347601
0.33099955 -0.035735473 1.0331874
0.32882461 -0.030949995 1.0257819
0.32833648 -0.029939964 1.024218
0.32785836 -0.028930753 1.0226556
0.32713342 -0.027553774 1.0205218
0.32616255 -0.025855482 1.0178877
0.32425562 -0.022197492 1.0122197
0.32355547 -0.020561181 1.0096887
0.32308692 -0.019560449 1.0081397
0.32239744 -0.017974198 1.0056859
0.32193878 -0.016975716 1.0041406
0.32124823 -0.015348151 1.0016234
0.32079035 -0.014398128 1.0001525
0.32033196 -0.013426103 0.99864769
0.31987372 -0.012464099 0.99715841
0.31941545 -0.011503011 0.99567044
0.31827271 -0.0092645958 0.99220276
0.31758833 -0.0079922229 0.99023056
0.3164556 -0.0057788566 0.98680162
0.31156301 0.0035331175 0.97237158
0.3100422 0.0065696612 0.96766835
0.30961397 0.0074731782 0.96626961
0.30918565 0.0083758757 0.96487212
0.30875733 0.0092777014 0.963476
0.30833906 0.010174319 0.96208817
0.30748239 0.01196482 0.95931607
0.30706406 0.012854375 0.95793903
0.30601153 0.01492282 0.95473474
0.30559319 0.015805103 0.9533689
0.30517492 0.016682256 0.95201093
0.30475652 0.017563045 0.95064735
0.3018648 0.023343425 0.94169426
0.30145645 0.024204955 0.94036055
0.30104807 0.025061011 0.93903524
0.30003557 0.027046692 0.9359591
0.29902309 0.029019352 0.93290293
0.29802057 0.03097941 0.92986643
0.29702809 0.032926861 0.92684948
0.29662982 0.033757303 0.92556375
0.29566032 0.035971388 0.92213857
0.29507923 0.037348557 0.92000872
0.29469082 0.038170699 0.91873598
0.29430246 0.03898764 0.91747123
0.29332986 0.04088724 0.91452837
0.29295146 0.041697387 0.91327435
0.29256305 0.042506807 0.91202116
0.29218465 0.043310892 0.91077644
0.29123217 0.045180127 0.90788072
0.29027969 0.047036655 0.9050045
0.28990123 0.047832571 0.90377229
0.2891416 0.049138915 0.9017458
0.2885676 0.050181314 0.90012968
0.28801373 0.0512188 0.89852172
0.28744972 0.05225496 0.89691544
0.28688583 0.053285673 0.89531761
0.28450972 0.058168925 0.88775605
0.28397828 0.059454437 0.88576829
0.28343683 0.060733169 0.88379061
0.28307837 0.061490562 0.88261813
0.28272989 0.062247209 0.88144708
0.28147903 0.064746246 0.87757635
0.2805866 0.06648118 0.87488842
0.28005272 0.067461357 0.87336898
0.27951887 0.068436094 0.87185782
0.27899501 0.069410063 0.87034822
0.27812272 0.07111004 0.86771452
0.27777418 0.071845546 0.8665759
0.27742568 0.072575845 0.86544526
0.27656344 0.07425689 0.86284089
0.27622494 0.074980982 0.86172009
0.27554795 0.076422453 0.85948873
0.27520946 0.077140182 0.8583777
0.27487096 0.077857301 0.85726756
0.27453241 0.078573808 0.85615838
0.27401862 0.079510637 0.85470599
0.27267262 0.082077667 0.85072815
0.27234411 0.08278162 0.84963852
0.27100804 0.085322119 0.84570169
0.27067959 0.086014532 0.84462976
0.27035102 0.086711228 0.84355128
0.27003255 0.087402821 0.8424809
0.26970401 0.088093728 0.84141123
0.26937547 0.088784039 0.84034258
0.26824468 0.09105289 0.83682853
0.26744422 0.092883065 0.83399725
0.2671257 0.093560465 0.83294863
0.26601487 0.095790222 0.82949519
0.26522434 0.097591482 0.82670856
0.26445365 0.099378794 0.82394391
0.26413512 0.1000435 0.82291478
0.26382643 0.1007053 0.82189041
0.26335275 0.1015666 0.82055509
0.26258054 0.10308072 0.81820947
0.26210687 0.10392987 0.8168928
0.2604174 0.10711845 0.81195128
0.26010871 0.10776062 0.81095701
0.25981024 0.10840129 0.80996537
0.25951156 0.10904357 0.80897123
0.25921297 0.10968131 0.80798405
0.25875941 0.11051403 0.8066932
0.25770867 0.1126025 0.80345821
0.25695637 0.11405025 0.80121499
0.2562243 0.11548913 0.79898602
0.25402895 0.12000801 0.79198879
0.25375044 0.1206217 0.79103911
0.25346178 0.12123232 0.79009384
0.25317311 0.12184291 0.78914863
0.25288445 0.12245353 0.78820336
0.25245085 0.12323956 0.78698468
0.25201747 0.12402405 0.78576839
0.25130525 0.12540871 0.78362316
0.2504594 0.12720439 0.78084344
0.25018078 0.127803 0.77991688
0.24893132 0.13034579 0.7759791
0.24822915 0.13169874 0.77388281
0.2478157 0.13245626 0.77270848
0.24740234 0.13320917 0.77154124
0.2467103 0.13454559 0.76947057
0.24562562 0.13685113 0.76590163
0.24495354 0.1381681 0.76386142
0.2442815 0.13947298 0.76183975
0.24177924 0.14493743 0.75338292
0.24152046 0.14549392 0.75252157
0.24099317 0.14660522 0.75080115
0.23983356 0.14896446 0.74714762
0.23957482 0.14950886 0.74630481
0.23829073 0.15200128 0.74244326
0.23803207 0.15254109 0.74160749
0.23778331 0.15307805 0.74077642
0.23752466 0.15361783 0.73994064
0.23727587 0.15415481 0.73910958
0.23638466 0.15568405 0.73673719
0.23415574 0.16020826 0.72973084
0.23390698 0.1607331 0.72891831
0.23341948 0.16177532 0.72730505
0.23304614 0.16243789 0.72627759
0.23268291 0.16310361 0.72524559
0.23230979 0.16376458 0.72422051
0.23194647 0.16442731 0.72319311
0.2315833 0.1650809 0.72217971
0.22979763 0.16878593 0.71644312
0.22955877 0.16928822 0.71566552
0.22873807 0.17093295 0.71311808
0.22849944 0.17143363 0.71234298
0.22827062 0.17193151 0.71157241
0.22780305 0.17292705 0.71003133
0.22757426 0.17342493 0.70926082
0.22734556 0.17391819 0.70849735
0.22687799 0.17490166 0.7069748
0.22664917 0.17539194 0.70621592
0.22642031 0.17588225 0.70545697
0.22619161 0.17637552 0.7046935
0.22539073 0.17797059 0.70222282
0.22381681 0.17808244 0.70200449
0.22308701 0.17807253 0.701998
0.21569455 0.17810982 0.70172101
0.20808348 0.17841075 0.70103312
0.20528856 0.17823945 0.70121282
0.17882244 0.17828393 0.70035779
0.17809264 0.17827401 0.7003513
0.17664303 0.17825428 0.70033848
0.17010474 0.17816536 0.70028049
0.16938493 0.17815557 0.70027411
0.16130273 0.17817894 0.69999802
0.15541996 0.17823219 0.69974142
0.14687087 0.17784938 0.70007449
0.13968718 0.17761381 0.70022231
0.13895737 0.1776039 0.70021582
0.13750775 0.17758419 0.70020294
0.11974062 0.17801808 0.69900918
0.11520897 0.17835927 0.69835103
0.11219111 0.17858478 0.69791543
0.10936618 0.17841309 0.69809484
0.084141359 0.17780051 0.69828463
0.078262381 0.17799008 0.69781905
0.070227839 0.17814736 0.69733894
0.055023525 0.17807382 0.69699973
0.041949078 0.17829128 0.6962775
0.028970497 0.17811477 0.6961624
0.028249688 0.17810497 0.69615602
0.0030124336 0.17776173 0.69593227
0.00084452704 0.17786554 0.69570857
-0.0020382591 0.17782632 0.695683
-0.0056401752 0.17764406 0.69585556
-0.017177336 0.17748715 0.69575328
-0.01789815 0.17747733 0.6957469
-0.018618964 0.17746753 0.69574046
-0.01933977 0.17745775 0.69573408
-0.020061582 0.17744792 0.69572771
-0.020782389 0.17743811 0.69572133
-0.037366018 0.17721257 0.69557428
-0.048862502 0.17732577 0.69505888
-0.049583308 0.17731598 0.6950525
-0.051023938 0.17729637 0.69503969
-0.066813342 0.17734364 0.69449782
-0.071786679 0.17754255 0.69404483
-0.076819353 0.1774741 0.69400024
-0.078256972 0.17745455 0.69398749
-0.078975789 0.17744477 0.69398111
-0.079694591 0.17743501 0.69397473
-0.094115473 0.17710561 0.69405133
-0.097666852 0.17719057 0.69381541
-0.11060745 0.17701457 0.69370067
-0.11204707 0.17699499 0.69368792
-0.11641159 0.17680235 0.69385368
-0.1236097 0.17670447 0.69378984
-0.1243195 0.17669481 0.69378358
-0.12863836 0.17663607 0.69374526
-0.13013366 0.17648245 0.69393647
-0.13091922 0.17634305 0.69412696
-0.13124728 0.17524436 0.69580257
-0.13157541 0.1741381 0.69748986
-0.13177231 0.1735179 0.69843537
-0.13190347 0.17302728 0.69918406
-0.13217586 0.17205048 0.70067441
-0.13230714 0.17155686 0.7014277
-0.13277644 0.16994016 0.70389378
-0.13290757 0.16944954 0.70464247
-0.13304877 0.16895121 0.70540273
-0.13338688 0.16781302 0.70713866
-0.13372496 0.16667479 0.70887464
-0.13420427 0.16501857 0.71140099
-0.13475916 0.16299063 0.71449542
-0.13490039 0.16248479 0.71526718
-0.13504168 0.16197136 0.71605057
-0.13518283 0.16146094 0.71682936
-0.13532415 0.16094749 0.71761274
-0.13546541 0.16043404 0.71839619
-0.13581353 0.15925632 0.72019249
-0.13602024 0.15858746 0.72121239
-0.13616145 0.15806945 0.7220028
-0.13630265 0.15755144 0.72279322
-0.13644397 0.15703046 0.72358823
-0.13659525 0.15650475 0.72439015
-0.13687769 0.15546122 0.72598255
-0.13717031 0.15440696 0.72759104
-0.13752839 0.15319729 0.72943604
-0.13766953 0.15266714 0.73024511
-0.13782084 0.15213391 0.7310586
-0.13811344 0.15106753 0.73268574
-0.13825473 0.15053439 0.73349935
-0.13869858 0.14892268 0.73595852
-0.13935882 0.14682916 0.73915035
-0.13957551 0.14612836 0.74021894
-0.13979223 0.14541996 0.74129921
-0.14017025 0.14416604 0.74321145
-0.14032152 0.1436131 0.74405515
-0.14068946 0.14234722 0.7459861
-0.14085078 0.14179412 0.74682975
-0.14107794 0.14084378 0.74828076
-0.14131525 0.1398904 0.74973625
-0.14201647 0.13725075 0.75376463
-0.14240453 0.13594979 0.75574875
-0.14278248 0.13464437 0.75774002
-0.14301917 0.13390388 0.75886893
-0.14324576 0.13316651 0.75999331
-0.14348248 0.13241848 0.76113373
-0.14387029 0.1310962 0.76315057
-0.14403167 0.13051592 0.76403594
-0.14419299 0.12993558 0.76492137
-0.14435437 0.12935525 0.76580679
-0.14475232 0.12801017 0.76785833
-0.14491358 0.12742527 0.76875079
-0.14531159 0.12607265 0.77081388
-0.14554819 0.12530789 0.77197999
-0.14578474 0.12453859 0.77315307
-0.14595619 0.12394301 0.77406156
-0.14611739 0.12334598 0.77497262
-0.14627886 0.12275054 0.77588123
-0.14645019 0.12215036 0.77679682
-0.14685804 0.12076879 0.77890402
-0.14709464 0.11998436 0.78010029
-0.14751244 0.11859047 0.78222609
-0.14767385 0.11798291 0.7831533
-0.14776999 0.11755962 0.78379977
-0.14802757 0.11652119 0.78538501
-0.14878944 0.11363257 0.78979355
-0.14896077 0.11301272 0.7907393
-0.14938882 0.11158095 0.79292291
-0.15014818 0.10913289 0.79665565
-0.15057614 0.10767683 0.79887652
-0.15074745 0.10704486 0.79984087
-0.15128171 0.10513517 0.80275446
-0.15153816 0.10430194 0.80402499
-0.15179476 0.10346571 0.80530018
-0.15213612 0.10242961 0.8068794
-0.15248752 0.10138585 0.80847007
-0.15274382 0.10053592 0.80976623
-0.15292537 0.099885702 0.81075823
-0.1532996 0.098327875 0.81313688
-0.15357748 0.097217776 0.8148315
-0.15402526 0.095693231 0.81715679
-0.15420669 0.095032111 0.8181656
-0.15438816 0.094370656 0.81917489
-0.15457958 0.093703598 0.82019246
-0.15512234 0.091954894 0.82285881
-0.15538862 0.091072731 0.82420415
-0.15558007 0.090398714 0.82523239
-0.15576151 0.089724518 0.82626122
-0.15595299 0.089049652 0.82729077
-0.1561344 0.088369697 0.82832843
-0.15632594 0.0876939 0.82935941
-0.15660223 0.086798243 0.83072513
-0.15687856 0.085901976 0.83209181
-0.15706998 0.08521495 0.83313996
-0.15726146 0.084527329 0.83418912
-0.15745294 0.083839417 0.8352387
-0.15792066 0.082237326 0.83768237
-0.15839842 0.080627874 0.84013706
-0.15858987 0.079927497 0.84120578
-0.15888801 0.078745738 0.84300971
-0.15907952 0.0780439 0.84408063
-0.15928099 0.077336751 0.84515941
-0.15947244 0.0766294 0.84623879
-0.15996021 0.074986808 0.84874403
-0.16024643 0.074047044 0.85017711
-0.16044796 0.073332325 0.85126752
-0.16073424 0.0723911 0.85270286
-0.16103038 0.071439996 0.85415304
-0.16141135 0.070261769 0.8559491
-0.16190898 0.068576552 0.85851943
-0.16221732 0.067351095 0.86039013
-0.16241878 0.066617317 0.86150974
-0.16263029 0.065882765 0.86263025
-0.16323486 0.063671671 0.86600411
-0.1634464 0.062930197 0.86713523
-0.16364786 0.062183678 0.86827439
-0.16385943 0.061440945 0.86940747
-0.16406095 0.060693227 0.87054849
-0.16427249 0.059944764 0.87169033
-0.16457865 0.058953837 0.87320131
-0.16478017 0.058199435 0.87435257
-0.16499171 0.057444356 0.87550455
-0.16529781 0.056441866 0.87703329
-0.16550934 0.0556807 0.87819463
-0.16603702 0.053909335 0.88089621
-0.16644764 0.052646391 0.88282132
-0.16676375 0.051630162 0.88437086
-0.16707978 0.050603602 0.8859362
-0.16739589 0.049580745 0.88749588
-0.16771188 0.048547782 0.88907105
-0.16792342 0.047766916 0.8902626
-0.16814497 0.046985313 0.89145499
-0.16835648 0.04619839 0.89265585
-0.16857803 0.045410693 0.8938576
-0.16869506 0.044875946 0.89467442
-0.16881222 0.044345185 0.8954851
-0.16892928 0.043809853 0.89630282
-0.16904637 0.043273915 0.89712149
-0.16937509 0.041942313 0.89915437
-0.16959673 0.041146193 0.90036905
-0.16992277 0.040085562 0.90198636
-0.17024881 0.039019182 0.90361249
-0.17068925 0.037687924 0.90564156
-0.17101526 0.036614887 0.90727788
-0.17145559 0.035267204 0.90933216
-0.17189598 0.033918336 0.91138822
-0.17223188 0.032828145 0.91305059
-0.17256775 0.031732202 0.91472179
-0.17279929 0.030905027 0.9159838
-0.17303088 0.030076925 0.91724718
-0.17359835 0.028139558 0.92020226
-0.17395726 0.026744287 0.92233193
-0.17430621 0.025342207 0.92447233
-0.17453775 0.024495613 0.92576414
-0.17477939 0.023652583 0.92705017
-0.17501101 0.022804525 0.92834419
-0.17525265 0.021955706 0.9296391
-0.17548421 0.021101542 0.93094248
-0.17572585 0.020246405 0.9322471
-0.1759575 0.019390751 0.93355274
-0.1763266 0.017958742 0.9357385
-0.17668572 0.016520198 0.93793458
-0.17692733 0.01565171 0.93925965
-0.177169 0.014782637 0.94058561
-0.17752486 0.013620988 0.942357
-0.17799494 0.012161314 0.94458216
-0.17906904 0.0089267865 0.949512
-0.17943475 0.0077366233 0.95132685
-0.17980048 0.0065452605 0.95314348
-0.18004212 0.0056503937 0.95450902
-0.18040788 0.0044522807 0.95633608
-0.18079713 0.0029514357 0.95862681
-0.18104872 0.0020440891 0.96001118
-0.18130037 0.0011358708 0.96139693
-0.18167612 -8.1218779e-05 0.96325278
-0.18192777 -0.00099582225 0.96464831
-0.18230349 -0.0022197738 0.96651465
-0.18267918 -0.0034495294 0.96838993
-0.18317881 -0.0049986243 0.9707514
-0.18367836 -0.0065585375 0.97312945
-0.18393999 -0.0074924529 0.9745543
-0.18420166 -0.0084272847 0.97598052
-0.18458721 -0.0096864402 0.97790062
-0.18497279 -0.010946915 0.97982275
-0.18523443 -0.011893861 0.98126757
-0.18550611 -0.012841769 0.98271358
-0.18564388 -0.013470754 0.98367435
-0.1859194 -0.01472991 0.98559773
-0.18646672 -0.016952142 0.98899031
-0.18673846 -0.01791434 0.99045825
-0.18713406 -0.019207805 0.99243069
-0.18765354 -0.020838246 0.99491632
-0.188059 -0.022148535 0.99691427
-0.18845457 -0.02346047 0.99891502
-0.18886036 -0.024764284 1.000903
-0.18926561 -0.026101932 1.0029429
-0.18967089 -0.027440749 1.0049846
-0.18995312 -0.02840773 1.0064596
-0.19037277 -0.030061662 1.0089842
-0.19095004 -0.032406755 1.0125644
-0.19163731 -0.034772329 1.0161728
-0.19206306 -0.036121875 1.0182303
-0.192478 -0.037518829 1.0203609
-0.19289392 -0.038871527 1.0224236
-0.19318578 -0.039895065 1.023985
-0.19361091 -0.041296057 1.0261215
-0.19403613 -0.042698763 1.0282606
-0.19432813 -0.043725945 1.0298276
-0.19460925 -0.044799663 1.0314664
-0.19490135 -0.045828946 1.0330366
-0.19505927 -0.046526901 1.0341026
-0.19520807 -0.047179304 1.0350989
-0.19536602 -0.047878407 1.0361667
-0.19552401 -0.048577867 1.0372349
-0.19567287 -0.049231805 1.0382336
